276776.157090 5151645.854014 2385.863110 94 98 93
276776.109971 5151645.868662 2385.861188 158 158 152
276776.063462 5151645.916758 2385.815808 130 132 122
276776.125718 5151645.905283 2385.799786 77 80 83
276776.055283 5151645.697397 2385.957288 77 86 94
276776.098618 5151645.917979 2385.775586 117 118 118
276776.141587 5151645.819956 2385.890393 117 127 138
276776.117905 5151645.896128 2385.828503 121 122 115
276775.995713 5151645.872813 2385.882214 195 195 191
276776.082261 5151645.899302 2385.839795 139 139 138
276776.035264 5151645.913462 2385.836713 105 110 117
276775.969468 5151645.711069 2385.949994 75 87 100
276776.160386 5151645.795420 2385.900098 122 136 144
276776.199692 5151645.761362 2385.947491 109 111 112
276776.144761 5151645.751719 2385.947797 96 99 99
276776.029648 5151645.727183 2385.944592 116 131 140
276776.110337 5151645.929697 2385.744611 110 111 113
276775.969224 5151645.785044 2385.919110 115 129 140
276776.043442 5151645.755381 2385.926312 98 110 121
276775.897080 5151645.808970 2385.916089 125 139 148
276776.082017 5151645.920176 2385.750195 44 45 50
276776.050889 5151645.823862 2385.892712 116 127 136
276775.934189 5151645.732920 2385.945905 89 106 119
276776.073350 5151645.800669 2385.901990 115 126 130
276776.130723 5151645.921763 2385.774915 91 92 93
276776.046128 5151645.789072 2385.911206 133 145 160
276776.194199 5151645.802744 2385.894299 72 79 83
276776.091538 5151645.909189 2385.804303 112 112 106
276775.957383 5151645.818979 2385.912396 135 145 154
276775.884263 5151645.832896 2385.900586 131 147 158
276775.991929 5151645.805186 2385.912000 124 138 152
276775.967393 5151645.668711 2385.968213 97 111 122
276776.013779 5151645.783335 2385.917188 127 141 152
276776.380723 5151645.745493 2386.082806 117 126 131
276776.415024 5151645.738535 2386.115613 112 121 127
276776.353379 5151645.700938 2386.084912 29 32 35
276776.354233 5151645.765879 2386.002087 78 77 75
276776.495469 5151645.743662 2386.109692 107 112 117
276776.523301 5151645.756235 2386.098492 127 136 145
276776.377793 5151645.793467 2385.979504 110 110 109
276776.460313 5151645.765513 2386.098615 132 143 148
276776.297349 5151645.696543 2386.088513 76 73 66
276776.453110 5151645.743662 2386.119092 127 139 147
276776.492295 5151645.776377 2386.078107 108 113 121
276776.421738 5151645.762461 2386.097394 86 92 103
276776.421616 5151645.712290 2386.143903 115 123 130
276776.311753 5151645.654795 2386.148999 115 126 135
276776.385117 5151645.702891 2386.120801 106 112 120
276776.437363 5151645.785410 2386.058698 111 115 117
276776.484971 5151645.804453 2386.037701 109 111 112
276776.390610 5151645.777354 2386.040692 98 103 107
276776.329697 5151645.705820 2386.051099 27 28 34
276776.341538 5151645.738535 2386.047986 106 116 124
276776.266953 5151645.724253 2385.995007 23 25 24
276776.311875 5151645.746348 2385.976605 41 44 48
276776.439683 5151645.805186 2385.947308 38 41 45
276776.438462 5151645.795908 2386.003491 97 97 94
276776.359360 5151645.762461 2386.040509 105 113 119
276776.393662 5151645.807505 2385.954205 77 83 86
276776.410874 5151645.687388 2386.158307 122 131 138
276776.355210 5151645.674082 2386.125409 44 50 51
276776.334214 5151645.635020 2386.162701 93 102 112
276776.296616 5151645.684092 2386.122815 129 142 150
276776.320664 5151645.739756 2386.011609 75 80 78
276776.303574 5151645.692271 2386.017896 18 19 23
276776.421982 5151645.795664 2385.971692 92 93 92
276776.296860 5151645.715586 2385.997906 49 51 52
276776.335801 5151645.788706 2385.965192 81 89 100
276776.273423 5151645.755869 2385.954694 30 31 35
276776.462998 5151645.786265 2386.076489 127 132 136
276776.283433 5151645.677500 2386.043500 40 40 42
276776.468979 5151645.815684 2385.951215 67 70 72
276776.489365 5151645.810801 2386.005414 101 102 101
276776.401108 5151645.791758 2386.007397 111 112 112
276776.457017 5151645.719248 2386.136792 105 116 126
276776.248887 5151645.742930 2385.979108 46 44 39
276776.514268 5151645.797617 2386.056287 114 123 129
276776.327744 5151645.687754 2386.117596 115 129 135
276776.453721 5151645.795786 2386.030011 104 104 104
276776.403306 5151645.768564 2386.069714 106 109 111
276776.387192 5151645.672251 2386.138104 103 109 113
276776.268418 5151645.694224 2386.018506 27 29 31
276776.141343 5151645.608286 2386.188885 113 121 128
276776.079575 5151645.589731 2386.147595 101 113 121
276776.258652 5151645.647349 2386.169598 115 124 132
276776.118027 5151645.591685 2386.206586 118 125 131
276776.056138 5151645.580332 2386.100293 105 113 118
276776.079941 5151645.608408 2386.078992 30 35 39
276775.998154 5151645.625010 2386.006085 102 111 115
276776.190293 5151645.629160 2386.168408 107 117 123
276776.106187 5151645.618906 2386.112500 108 119 127
276776.221543 5151645.617441 2386.199109 109 122 131
276776.131943 5151645.675059 2386.035291 96 106 115
276776.150376 5151645.625620 2386.152203 92 101 105
276776.118760 5151645.610361 2386.152814 111 120 126
276776.102036 5151645.646128 2386.040112 106 118 126
276776.076768 5151645.628062 2386.042401 97 109 118
276776.266953 5151645.666025 2386.146985 111 121 130
276776.025376 5151645.558848 2386.142896 101 108 113
276776.276597 5151645.626108 2386.191693 133 142 150
276776.175034 5151645.592295 2386.192609 60 68 75
276776.198716 5151645.701914 2386.071393 115 129 137
276776.048081 5151645.599375 2386.047101 90 101 111
276776.099106 5151645.594248 2386.177991 100 106 112
276776.191270 5151645.745493 2385.990399 125 140 151
276776.114609 5151645.687266 2386.010602 107 121 132
276776.038682 5151645.551157 2386.198590 126 133 138
276776.252183 5151645.692515 2386.107098 122 129 130
276776.066147 5151645.572275 2386.177197 108 116 123
276776.203721 5151645.668955 2386.110913 114 123 129
276776.172837 5151645.652354 2386.113202 113 124 133
276776.141953 5151645.638071 2386.115613 74 82 90
276776.220811 5151645.651377 2386.165204 119 127 135
276776.120957 5151645.645273 2386.081494 99 107 110
276776.084702 5151645.578257 2386.216107 112 121 129
276776.149766 5151645.656138 2386.092786 110 123 132
276776.036606 5151645.576548 2386.067792 98 110 118
276776.232163 5151645.694956 2386.036298 42 44 42
276776.003770 5151645.594248 2386.030896 95 107 118
276776.160752 5151645.712656 2386.012585 118 130 141
276776.126084 5151645.719004 2385.987897 107 119 128
276776.044175 5151645.641001 2386.009015 87 98 105
276776.094224 5151645.694346 2385.988202 111 122 128
276776.177964 5151645.638071 2386.140790 71 78 87
276776.223984 5151645.742319 2385.996808 118 125 126
276776.081284 5151645.672495 2386.007092 100 111 118
276776.235337 5151645.697764 2386.074597 77 80 75
276776.164780 5151645.698252 2386.050397 89 95 96
276776.040024 5151645.671885 2385.968488 60 66 70
276776.009385 5151645.656016 2385.971509 60 67 73
276776.026230 5151645.618296 2386.023602 106 118 127
276776.208604 5151645.714854 2386.030591 66 71 72
276776.160386 5151645.746470 2385.976086 116 124 127
276776.173447 5151645.677744 2386.086011 107 119 129
276776.033677 5151645.557505 2386.095013 40 43 47
276775.983628 5151645.638804 2385.981213 62 70 75
276776.077744 5151645.599619 2386.110394 104 115 124
276776.051865 5151645.573008 2386.132397 107 117 126
276775.882188 5151645.889048 2385.857007 138 147 159
276775.958604 5151645.928599 2385.821301 129 138 145
276775.992051 5151645.923960 2385.836407 151 158 161
276775.910020 5151645.876230 2385.879987 144 157 165
276775.850815 5151645.923594 2385.805188 136 143 148
276775.955308 5151645.951182 2385.786603 134 140 144
276775.896592 5151645.915903 2385.830090 145 152 158
276775.857285 5151645.906992 2385.835004 115 121 126
276775.936753 5151645.891489 2385.872906 150 154 154
276775.945176 5151645.910410 2385.849408 125 131 136
276775.927842 5151645.922373 2385.825513 131 142 149
276775.906724 5151645.937998 2385.789807 144 154 160
276775.998032 5151645.944468 2385.804395 124 127 128
276775.971909 5151645.899058 2385.867200 152 156 153
276775.873643 5151645.860361 2385.881390 138 150 158
276775.873154 5151645.946665 2385.781598 135 143 149
276775.832383 5151645.937876 2385.779889 119 128 136
276775.509995 5151645.793833 2385.479688 36 37 40
276775.440781 5151645.743174 2385.474286 16 17 19
276775.486558 5151645.763682 2385.471509 21 22 25
276775.405259 5151645.755625 2385.470898 19 20 17
276775.525376 5151645.811167 2385.459088 47 50 54
276775.377427 5151645.793101 2385.327100 12 13 16
276775.493027 5151645.832041 2385.363110 58 61 65
276775.445786 5151645.769907 2385.372510 17 18 20
276775.483262 5151645.809214 2385.384686 49 51 54
276775.373887 5151645.775278 2385.365186 11 11 11
276775.407456 5151645.799814 2385.331006 50 51 52
276775.413926 5151645.736216 2385.444287 16 16 18
276775.451157 5151645.830820 2385.251813 19 21 25
276775.511582 5151645.813242 2385.428601 45 49 55
276775.484360 5151645.837168 2385.292188 42 44 47
276775.477646 5151645.846445 2385.254407 54 55 59
276775.476182 5151645.775645 2385.417889 29 31 36
276775.446641 5151645.755503 2385.402905 31 31 36
276775.453965 5151645.805674 2385.323895 45 46 47
276775.420762 5151645.778208 2385.352612 18 19 23
276775.453232 5151645.813975 2385.285992 32 33 36
276775.392686 5151645.751108 2385.406995 13 14 12
276775.447861 5151645.736338 2385.436414 21 22 24
276775.404893 5151645.817759 2385.296185 52 53 54
276775.524277 5151645.843149 2385.402692 54 57 60
276775.498887 5151645.873911 2385.263287 52 54 57
276775.539536 5151645.836924 2385.438885 49 52 56
276775.502549 5151645.856089 2385.323499 34 36 39
276775.515977 5151645.853281 2385.356213 44 47 49
276775.409775 5151645.835825 2385.263501 19 20 23
276775.456772 5151645.797007 2385.355389 34 36 40
276775.392686 5151645.754404 2385.376813 14 14 15
276775.380967 5151645.753672 2385.437512 17 17 16
276775.494004 5151645.782725 2385.446698 27 29 34
276775.477646 5151645.827524 2385.323895 40 41 43
276775.702866 5151645.807871 2385.726788 50 53 56
276775.731675 5151645.812876 2385.751294 18 23 24
276775.446885 5151645.752939 2385.529187 13 14 16
276775.477036 5151645.751963 2385.544598 22 22 27
276775.503770 5151645.770273 2385.550092 37 39 43
276775.495347 5151645.750010 2385.594403 29 29 36
276775.496812 5151645.777842 2385.517712 50 51 56
276775.472153 5151645.747568 2385.499402 23 25 26
276775.468003 5151645.752085 2385.577405 15 16 18
276775.513901 5151645.773081 2385.580609 43 45 50
276775.428818 5151645.755625 2385.501813 14 15 15
276775.680283 5151646.014902 2385.497906 116 127 135
276775.638657 5151645.994639 2385.429608 87 93 100
276775.699204 5151646.044077 2385.489209 116 127 135
276775.668687 5151646.022104 2385.456799 112 121 128
276775.602402 5151645.940806 2385.455701 79 85 88
276775.718857 5151646.094980 2385.414014 109 120 128
276775.658066 5151646.022227 2385.425214 82 91 101
276775.731187 5151646.067881 2385.490796 95 105 114
276775.592759 5151645.907114 2385.492688 83 89 95
276775.644883 5151645.990977 2385.461011 96 104 110
276775.710435 5151646.062998 2385.451306 122 133 142
276775.681870 5151646.043711 2385.435590 121 132 140
276775.710190 5151646.037729 2385.517010 126 138 148
276775.640244 5151645.976816 2385.490094 98 106 112
276775.568711 5151645.874888 2385.454205 84 90 94
276775.614243 5151645.962778 2385.434796 73 79 84
276775.740586 5151646.085581 2385.461011 105 114 120
276775.620469 5151645.945322 2385.496991 89 99 103
276775.577622 5151645.877573 2385.483502 52 56 60
276775.582139 5151645.909312 2385.447705 102 108 112
276775.688096 5151646.067515 2385.416913 131 141 150
276775.664902 5151645.989878 2385.515210 117 128 136
276775.553818 5151645.854014 2385.491986 84 87 90
276775.606553 5151646.068125 2385.277112 105 114 119
276775.555894 5151645.977549 2385.272198 80 84 89
276775.575791 5151646.010752 2385.266797 63 67 71
276775.714585 5151646.101450 2385.275708 129 133 136
276775.522446 5151645.919443 2385.246991 74 78 82
276775.641465 5151646.089487 2385.280896 124 128 132
276775.582627 5151645.933604 2385.409711 95 102 108
276775.553330 5151645.878428 2385.417310 93 98 105
276775.570908 5151645.949229 2385.348187 85 91 97
276775.525010 5151645.906016 2385.296887 67 72 77
276775.542832 5151645.906138 2385.365704 53 58 62
276775.692490 5151646.082163 2385.390515 78 83 85
276775.597520 5151645.966318 2385.378491 74 80 83
276775.628647 5151646.019297 2385.369214 109 120 128
276775.592759 5151646.029063 2385.292310 96 103 110
276775.562729 5151645.959116 2385.310712 94 101 106
276775.539902 5151645.937144 2385.271100 74 78 82
276775.666367 5151646.063120 2385.376599 129 137 143
276775.699082 5151646.088755 2385.331403 124 128 131
276775.636338 5151646.076914 2385.319714 120 127 128
276775.614854 5151646.043345 2385.323895 115 127 134
276775.620225 5151645.993540 2385.390607 99 107 113
276775.544053 5151645.918711 2385.322797 69 73 77
276775.587510 5151645.985361 2385.337201 95 103 111
276775.686143 5151646.089976 2385.282910 114 117 119
276775.559556 5151645.908091 2385.395886 72 78 83
276775.607529 5151646.000010 2385.359906 96 106 113
276775.637070 5151646.056406 2385.342389 109 122 133
276775.713242 5151646.088145 2385.358899 120 123 124
276775.574692 5151646.002207 2385.299207 88 94 99
276775.539170 5151645.877329 2385.387891 71 76 79
276775.648423 5151646.032725 2385.389386 112 122 130
276775.671860 5151646.080088 2385.347211 130 137 142
276775.527085 5151645.896982 2385.339093 81 84 87
276775.668687 5151646.089854 2385.313397 125 129 132
276775.283921 5151645.869028 2385.484113 93 93 93
276775.229233 5151645.895640 2385.444104 94 82 74
276775.343491 5151645.818979 2385.471509 75 75 71
276775.246567 5151645.853159 2385.530713 74 59 48
276775.237900 5151645.880503 2385.476392 50 44 44
276775.303452 5151645.852915 2385.500409 86 87 90
276775.264512 5151645.884531 2385.458203 94 97 98
276775.347764 5151645.819956 2385.517102 63 64 64
276775.384995 5151645.780039 2385.489392 82 82 79
276775.299790 5151645.868174 2385.453503 99 99 97
276775.286118 5151645.835337 2385.533887 80 85 89
276775.363633 5151645.787729 2385.464886 28 28 26
276775.324570 5151645.836313 2385.451886 59 59 57
276775.537095 5151645.828379 2385.487500 53 56 58
276775.217759 5151645.917490 2385.387402 68 64 63
276775.298569 5151645.866099 2385.416211 71 71 69
276775.252305 5151645.895518 2385.355908 70 68 65
276775.333848 5151645.822520 2385.326398 44 44 43
276775.207505 5151645.911387 2385.291699 85 74 64
276775.242539 5151645.896128 2385.410809 97 99 101
276775.357651 5151645.781870 2385.409985 19 19 19
276775.227891 5151645.908945 2385.332593 81 78 72
276775.341538 5151645.884043 2385.283795 80 86 83
276775.319688 5151645.856699 2385.291089 40 41 44
276775.372910 5151645.858896 2385.271497 14 16 18
276775.260728 5151645.883555 2385.319012 42 42 41
276775.324204 5151645.839365 2385.390515 64 64 62
276775.303940 5151645.865366 2385.372388 78 78 76
276775.346909 5151645.803965 2385.352399 21 21 21
276775.343979 5151645.810557 2385.418195 43 44 42
276775.274155 5151645.886606 2385.426099 85 85 84
276775.281602 5151645.884653 2385.350415 74 73 71
276775.304917 5151645.859873 2385.337201 80 79 76
276775.266953 5151645.887339 2385.394086 90 90 89
276775.297104 5151645.877695 2385.289197 42 42 42
276775.202012 5151645.923105 2385.351300 83 59 37
276775.359849 5151645.831553 2385.297986 18 19 23
276775.508286 5151645.878794 2385.297711 61 64 66
276775.293809 5151645.880503 2385.258405 24 25 26
276775.325547 5151645.830820 2385.360089 49 49 48
276775.235337 5151645.892344 2385.303601 62 62 56
276775.696641 5151645.903818 2385.698895 90 99 107
276775.603135 5151645.845103 2385.637311 102 108 114
276775.660142 5151645.930308 2385.622510 85 92 99
276775.716050 5151646.007578 2385.611096 101 105 112
276775.639390 5151645.870859 2385.628308 48 53 58
276775.723252 5151645.984019 2385.681714 112 127 134
276775.730820 5151646.005625 2385.661206 55 61 70
276775.756455 5151645.919688 2385.750104 125 139 149
276775.718125 5151645.868418 2385.745190 88 98 107
276775.747300 5151645.888438 2385.762311 96 107 116
276775.718003 5151645.943369 2385.715802 118 130 140
276775.694810 5151645.944224 2385.679608 102 113 120
276775.680771 5151645.895151 2385.668896 92 100 106
276775.680039 5151645.968516 2385.639386 120 129 138
276775.663682 5151645.955088 2385.605695 109 117 124
276775.634019 5151645.897715 2385.596509 87 93 100
276775.593735 5151645.854014 2385.568585 56 58 59
276775.608262 5151645.896860 2385.543988 92 98 101
276775.718613 5151645.915903 2385.732190 125 137 148
276775.667466 5151645.979624 2385.561292 106 113 119
276775.794419 5151645.947886 2385.734814 122 133 142
276775.740952 5151645.974131 2385.710706 113 125 136
276775.711045 5151645.840464 2385.715314 73 81 85
276775.695542 5151645.867075 2385.691907 66 73 80
276775.656113 5151645.896494 2385.632886 84 90 96
276775.626694 5151645.942515 2385.535413 120 126 133
276775.663682 5151645.824717 2385.712811 76 81 85
276775.663315 5151645.821299 2385.753400 91 96 105
276775.593247 5151645.799570 2385.720502 94 99 104
276775.600938 5151645.817637 2385.681714 66 71 77
276775.656968 5151645.861338 2385.657391 56 62 69
276775.610459 5151645.866221 2385.602887 76 81 84
276775.577500 5151645.833750 2385.599103 59 63 65
276775.701768 5151646.009287 2385.552686 115 124 131
276775.739976 5151646.050425 2385.546704 110 120 128
276775.558945 5151645.850107 2385.523694 94 100 102
276775.747910 5151646.031870 2385.608014 122 129 134
276775.624741 5151645.920298 2385.572308 106 112 117
276775.618027 5151645.826060 2385.711591 102 108 112
276775.695054 5151645.996592 2385.581586 128 136 142
276775.750352 5151646.023691 2385.644604 115 122 130
276775.601914 5151645.797007 2385.756512 89 94 99
276775.756333 5151645.946543 2385.733502 116 129 140
276775.763291 5151646.004526 2385.690106 108 118 125
276775.563584 5151645.834849 2385.554303 88 91 91
276775.700059 5151645.987803 2385.650800 117 128 136
276775.724351 5151646.025767 2385.568707 123 133 140
276775.626084 5151645.852183 2385.658704 104 111 117
276775.586655 5151645.866831 2385.538892 75 79 82
276775.640244 5151645.826426 2385.734296 83 89 96
276775.643906 5151645.838877 2385.691113 75 82 88
276775.640366 5151645.947275 2385.571606 82 90 95
276775.676377 5151645.926279 2385.651990 67 75 80
276775.781479 5151645.911509 2385.771313 132 140 145
276775.777939 5151645.971201 2385.718701 127 139 148
276775.647813 5151645.969004 2385.536206 130 139 143
276775.578721 5151645.812021 2385.660809 75 80 85
276775.577012 5151645.819102 2385.628308 80 85 90
276775.675889 5151645.845713 2385.682202 81 88 92
276775.632798 5151645.816050 2385.762585 102 108 114
276775.735093 5151645.846201 2385.759106 80 94 98
276775.507188 5151645.776011 2385.665387 50 52 54
276775.551011 5151645.783579 2385.772504 97 104 108
276775.375474 5151645.740977 2385.703503 97 100 102
276775.343003 5151645.726694 2385.706006 92 94 95
276775.319810 5151645.811533 2385.548413 69 76 83
276775.325425 5151645.735850 2385.665204 67 60 55
276775.537705 5151645.792979 2385.658612 63 66 71
276775.296372 5151645.790415 2385.564587 81 86 91
276775.516709 5151645.763682 2385.770093 104 109 114
276775.389268 5151645.783823 2385.536908 68 70 72
276775.399766 5151645.706797 2385.737286 46 52 49
276775.533066 5151645.786997 2385.690900 45 47 54
276775.372056 5151645.748911 2385.621014 95 96 96
276775.484238 5151645.751230 2385.629803 28 28 31
276775.550034 5151645.789194 2385.730511 46 47 49
276775.354722 5151645.748301 2385.658490 89 90 91
276775.307603 5151645.753794 2385.602887 54 53 53
276775.386094 5151645.752817 2385.586407 31 32 34
276775.453232 5151645.704111 2385.765790 86 91 99
276775.541001 5151645.802256 2385.616711 90 95 101
276775.536362 5151645.804087 2385.562695 85 89 93
276775.331650 5151645.780649 2385.565106 57 63 69
276775.515977 5151645.786875 2385.632611 78 80 85
276775.416367 5151645.752573 2385.668195 86 89 89
276775.474961 5151645.735605 2385.742413 86 91 96
276775.484238 5151645.757090 2385.685986 61 63 67
276775.386094 5151645.678843 2385.767102 80 83 83
276775.253770 5151645.835703 2385.591504 47 37 26
276775.276841 5151645.788584 2385.688306 102 95 107
276775.339219 5151645.691294 2385.746014 54 59 67
276775.323228 5151645.743174 2385.630994 61 50 40
276775.356675 5151645.753428 2385.594891 73 73 74
276775.429307 5151645.723032 2385.720807 74 83 87
276775.434678 5151645.750132 2385.619305 98 101 101
276775.437974 5151645.745127 2385.700513 85 89 86
276775.465562 5151645.750742 2385.654797 40 41 43
276775.496079 5151645.768564 2385.719586 90 94 96
276775.532334 5151645.814951 2385.516797 58 62 66
276775.393540 5151645.755381 2385.648114 90 91 91
276775.419297 5151645.683970 2385.765607 45 47 40
276775.403550 5151645.770518 2385.560803 46 49 52
276775.260850 5151645.821299 2385.626508 108 65 24
276775.343613 5151645.666025 2385.768201 86 92 99
276775.311753 5151645.720347 2385.703412 71 70 65
276775.439438 5151645.762949 2385.572614 79 81 77
276775.272202 5151645.812388 2385.567792 51 48 56
276775.359971 5151645.796641 2385.547803 71 78 82
276775.250352 5151645.841807 2385.560315 58 43 25
276775.491685 5151645.735361 2385.769513 107 115 121
276775.429551 5151645.698374 2385.740308 34 35 30
276775.367295 5151645.706187 2385.738904 93 101 107
276775.564438 5151645.795420 2385.694104 87 92 97
276775.360703 5151645.771006 2385.566907 55 59 63
276775.416123 5151645.771372 2385.525708 61 62 62
276775.285264 5151645.763315 2385.581891 52 52 57
276775.368638 5151645.794199 2385.512311 61 61 58
276775.064194 5151645.876353 2385.479291 98 99 99
276775.127915 5151645.865122 2385.464612 65 65 63
276775.080063 5151645.879160 2385.444012 97 97 98
276775.091294 5151645.883799 2385.551007 99 98 96
276774.951768 5151645.836924 2385.484204 75 79 82
276775.030137 5151645.871592 2385.444196 121 121 119
276775.045640 5151645.887949 2385.521497 95 97 96
276774.983628 5151645.849985 2385.560101 100 105 108
276775.110093 5151645.876841 2385.573712 90 89 88
276774.976792 5151645.860239 2385.521313 105 107 110
276775.172959 5151645.838389 2385.533795 55 54 56
276774.960679 5151645.820566 2385.576215 79 83 87
276775.140244 5151645.864756 2385.562909 114 112 108
276775.102646 5151645.880747 2385.514813 101 103 102
276775.182725 5151645.873057 2385.462415 57 57 57
276775.158677 5151645.878184 2385.444714 93 97 104
276775.004868 5151645.875254 2385.527905 117 119 121
276775.217148 5151645.842905 2385.520001 70 51 29
276775.203110 5151645.859995 2385.496991 48 30 17
276774.982896 5151645.861582 2385.475598 49 49 49
276775.014878 5151645.877695 2385.492413 120 120 120
276774.966904 5151645.849253 2385.443494 72 73 73
276774.954453 5151645.828867 2385.542706 46 49 53
276775.148667 5151645.855967 2385.488812 57 57 54
276775.200303 5151645.823862 2385.545911 72 70 68
276775.099473 5151645.883921 2385.483990 98 98 97
276774.941758 5151645.833384 2385.453687 78 81 84
276775.146958 5151645.856455 2385.520001 48 47 39
276775.076768 5151645.887461 2385.580792 77 78 78
276775.046982 5151645.882578 2385.562604 96 97 98
276775.044175 5151645.868906 2385.406689 94 94 96
276775.154160 5151645.896616 2385.363110 66 56 46
276775.095200 5151645.872690 2385.326611 49 49 53
276774.934800 5151645.837534 2385.401715 95 95 94
276775.167344 5151645.897471 2385.416608 107 111 106
276775.095933 5151645.865122 2385.358899 41 43 46
276774.964829 5151645.844004 2385.373395 96 97 96
276774.967148 5151645.842783 2385.324994 84 84 85
276775.176133 5151645.914561 2385.378613 78 47 23
276775.169419 5151645.920908 2385.324811 98 58 21
276775.004014 5151645.853647 2385.360394 72 73 73
276775.023789 5151645.857676 2385.336499 65 65 64
276774.999741 5151645.860361 2385.424207 62 62 60
276775.070176 5151645.869150 2385.380597 81 83 79
276775.124619 5151645.882822 2385.338513 41 42 43
276775.072129 5151645.856821 2385.298108 56 57 58
276775.140366 5151645.881968 2385.406293 94 98 100
276775.147324 5151645.892588 2385.306409 46 33 30
276775.100693 5151645.862437 2385.404706 50 49 50
276774.933579 5151645.837656 2385.361615 98 98 98
276775.004136 5151645.853037 2385.310498 81 82 82
276775.054185 5151645.867930 2385.349286 90 91 89
276775.041855 5151645.856699 2385.311108 46 47 47
276774.991929 5151645.852183 2385.390607 82 81 80
276775.201768 5151645.906382 2385.420605 119 80 41
276774.948960 5151645.836313 2385.299908 95 95 96
276775.115830 5151645.875864 2385.380688 57 59 59
276775.110093 5151645.878794 2385.299207 55 56 57
276775.124497 5151645.868296 2385.430188 47 48 48
276775.159775 5151645.916514 2385.289410 75 46 27
276774.972153 5151645.846079 2385.413190 96 96 95
276775.037461 5151645.866587 2385.375897 102 104 106
276774.835923 5151645.805186 2385.447705 103 103 102
276774.838364 5151645.802866 2385.505688 108 108 108
276774.878647 5151645.798716 2385.521008 68 69 66
276774.899399 5151645.798838 2385.582410 57 57 50
276774.932725 5151645.820322 2385.522992 73 74 76
276774.869980 5151645.800059 2385.453595 45 45 45
276774.891587 5151645.799692 2385.479993 53 52 56
276774.916245 5151645.807383 2385.550702 85 88 91
276774.909531 5151645.816050 2385.451611 89 92 96
276774.879746 5151645.803232 2385.555707 84 85 85
276774.821030 5151645.804209 2385.478894 122 121 118
276774.925645 5151645.819956 2385.482495 86 89 92
276774.697983 5151645.772715 2385.403485 120 120 121
276774.791733 5151645.798716 2385.322705 60 61 66
276774.670029 5151645.766123 2385.377393 108 109 111
276774.854722 5151645.812388 2385.399701 120 120 123
276774.897935 5151645.828379 2385.353314 94 93 91
276774.816025 5151645.807749 2385.381512 111 111 110
276774.861436 5151645.819468 2385.340405 99 100 103
276774.883042 5151645.809580 2385.427411 47 48 53
276774.741563 5151645.786631 2385.415295 123 123 123
276774.741807 5151645.785532 2385.352612 117 118 120
276774.797959 5151645.801157 2385.418286 133 132 128
276774.915391 5151645.828623 2385.322705 99 100 102
276774.770859 5151645.793955 2385.405804 131 132 131
276774.780747 5151645.795786 2385.360913 108 109 110
276774.701768 5151645.776865 2385.340497 85 88 92
276774.710068 5151645.781138 2385.375012 134 136 137
276774.877915 5151645.822520 2385.381390 116 117 117
276774.668687 5151645.765513 2385.346204 93 95 97
276774.905015 5151645.828257 2385.398114 117 117 116
276774.816025 5151645.803965 2385.351605 98 99 99
276775.147202 5151645.792246 2385.714001 45 43 33
276775.213242 5151645.764902 2385.596112 40 32 21
276775.265732 5151645.740732 2385.622296 52 51 49
276775.091172 5151645.842173 2385.695996 119 118 104
276775.023545 5151645.711313 2385.671887 35 35 36
276775.170640 5151645.739023 2385.700909 64 61 56
276775.228623 5151645.730479 2385.636914 73 58 42
276775.194932 5151645.741587 2385.743695 68 67 67
276775.063096 5151645.833384 2385.631207 42 47 53
276775.015732 5151645.812144 2385.672101 57 59 52
276775.016099 5151645.760630 2385.645795 44 47 50
276775.169053 5151645.777598 2385.607098 46 47 48
276775.266953 5151645.716685 2385.728101 66 65 66
276775.064194 5151645.822886 2385.730786 118 132 143
276775.029038 5151645.696787 2385.699506 42 41 37
276775.271348 5151645.719980 2385.678906 57 54 51
276775.058701 5151645.746958 2385.668408 36 37 34
276775.209092 5151645.723032 2385.659802 62 57 54
276775.067979 5151645.803477 2385.642407 42 46 51
276775.233140 5151645.782847 2385.579388 73 52 27
276775.159897 5151645.831064 2385.596295 68 75 78
276775.223496 5151645.728892 2385.704297 109 86 59
276775.117173 5151645.813608 2385.690289 76 73 60
276775.125474 5151645.826792 2385.720685 114 112 102
276775.202012 5151645.737803 2385.812909 109 110 103
276775.178574 5151645.779551 2385.787213 119 121 114
276775.226670 5151645.720713 2385.762585 57 56 56
276775.016831 5151645.809824 2385.721997 134 147 158
276775.068223 5151645.768687 2385.650006 20 17 23
276775.067734 5151645.783335 2385.676190 37 35 26
276775.144639 5151645.734019 2385.649396 21 20 20
276775.096055 5151645.786387 2385.637708 37 39 47
276775.183579 5151645.801768 2385.583997 48 50 50
276775.010239 5151645.714609 2385.743115 44 45 47
276775.004990 5151645.739390 2385.716595 46 43 43
276775.139756 5151645.757456 2385.691388 72 68 56
276775.201035 5151645.733652 2385.622815 22 21 23
276775.056992 5151645.830210 2385.672803 82 77 70
276775.115342 5151645.745371 2385.824689 106 120 132
276775.137070 5151645.767588 2385.803387 108 121 133
276775.099961 5151645.773569 2385.801892 125 138 149
276774.983384 5151645.767832 2385.639294 54 59 63
276775.037339 5151645.813975 2385.632214 62 66 72
276774.999009 5151645.811167 2385.614514 38 42 46
276775.175522 5151645.723276 2385.666699 67 66 63
276775.176133 5151645.772471 2385.753308 47 47 39
276775.010605 5151645.766245 2385.745313 42 41 42
276775.136948 5151645.802134 2385.778485 131 145 155
276775.240830 5151645.677378 2385.783704 32 34 38
276775.026230 5151645.763682 2385.679486 20 18 19
276775.101182 5151645.757090 2385.665387 55 50 43
276775.121567 5151645.780771 2385.683911 54 50 43
276775.078965 5151645.730479 2385.824109 99 110 121
276775.248643 5151645.752939 2385.600812 22 20 31
276775.014756 5151645.715464 2385.795697 47 47 52
276775.120591 5151645.824717 2385.614697 53 57 65
276775.260850 5151645.757456 2385.702893 87 64 54
276775.213486 5151645.718516 2385.789594 21 22 20
276775.272202 5151645.684702 2385.763196 73 74 72
276775.310044 5151645.681406 2385.744489 50 52 58
276775.119736 5151645.823618 2385.753094 137 149 154
276775.019517 5151645.846689 2385.614514 94 100 107
276775.006821 5151645.732554 2385.654309 36 37 39
276775.053696 5151645.772104 2385.782513 107 117 125
276775.030869 5151645.739878 2385.788495 65 72 71
276775.289658 5151645.731211 2385.654889 74 73 67
276775.038682 5151645.693003 2385.814404 32 33 40
276775.099961 5151645.797373 2385.777600 131 146 159
276775.195664 5151645.747202 2385.775189 65 64 56
276775.226548 5151645.823374 2385.562207 105 83 48
276775.238877 5151645.730112 2385.667615 123 87 54
276775.060532 5151645.795054 2385.760114 131 145 153
276774.963364 5151645.801646 2385.614087 85 92 97
276775.053330 5151645.749033 2385.807111 116 128 138
276775.226426 5151645.739634 2385.738110 30 33 36
276775.272324 5151645.775278 2385.624005 58 55 51
276775.160874 5151645.752573 2385.822888 125 140 150
276775.156968 5151645.796519 2385.743787 113 113 98
276775.078354 5151645.868540 2385.614514 72 80 91
276775.133652 5151645.798105 2385.621106 56 61 69
276775.109482 5151645.853281 2385.613202 57 64 71
276775.154526 5151645.759287 2385.630902 58 60 62
276775.063218 5151645.703257 2385.829388 39 40 49
276775.274277 5151645.659434 2385.779706 74 78 81
276775.253159 5151645.782847 2385.601788 76 70 66
276775.037217 5151645.733896 2385.686597 44 39 33
276775.005967 5151645.776499 2385.708386 51 48 47
276775.016221 5151645.789927 2385.639111 61 64 69
276775.241440 5151645.758311 2385.632489 51 46 52
276775.313828 5151645.659922 2385.777112 72 76 81
276775.122910 5151645.764536 2385.638715 35 38 42
276774.763779 5151645.614634 2385.839001 51 55 58
276774.907212 5151645.702769 2385.778485 47 45 36
276774.925645 5151645.708140 2385.809491 88 87 76
276774.994980 5151645.700571 2385.686200 19 19 21
276774.891831 5151645.739023 2385.665692 59 62 66
276774.941147 5151645.708262 2385.678906 25 26 28
276774.884751 5151645.704355 2385.742291 76 75 65
276774.739365 5151645.626230 2385.819806 44 44 55
276774.961289 5151645.725840 2385.664410 49 50 53
276774.959824 5151645.700205 2385.726514 47 46 47
276774.914048 5151645.776255 2385.636700 70 75 76
276774.860825 5151645.709971 2385.720105 60 60 51
276774.869370 5151645.725596 2385.685193 49 50 54
276774.964585 5151645.704233 2385.756787 28 27 25
276774.929917 5151645.789805 2385.612897 37 37 44
276774.966294 5151645.693369 2385.826215 48 48 46
276775.005967 5151645.687632 2385.821606 40 41 42
276774.918320 5151645.751230 2385.654309 38 42 45
276774.889390 5151645.685679 2385.711713 26 25 23
276774.991074 5151645.710825 2385.769391 60 61 62
276774.951279 5151645.698374 2385.796613 36 35 32
276774.773179 5151645.643076 2385.853802 82 86 88
276774.910752 5151645.710947 2385.677411 54 56 58
276774.937974 5151645.688364 2385.757794 26 23 20
276774.918320 5151645.682017 2385.728192 28 28 27
276774.987168 5151645.713145 2385.718915 56 55 55
276774.934800 5151645.714121 2385.847791 89 88 78
276774.893418 5151645.730234 2385.777112 94 90 78
276774.869248 5151645.731455 2385.742200 80 76 66
276774.866074 5151645.756479 2385.668988 69 72 77
276774.950913 5151645.760630 2385.640088 29 32 40
276774.759873 5151645.648813 2385.824109 81 86 90
276774.985093 5151645.707163 2385.800488 46 47 48
276775.691025 5151645.633066 2385.986798 112 128 137
276775.848862 5151645.671641 2385.966412 88 98 101
276775.675400 5151645.661631 2385.964307 108 124 133
276775.816758 5151645.693613 2385.961713 92 100 101
276775.768906 5151645.709116 2385.958112 81 90 97
276775.730332 5151645.707651 2385.955701 114 125 133
276775.706650 5151645.676523 2385.961102 55 60 72
276775.902695 5151645.755137 2385.935315 120 138 152
276775.863755 5151645.714487 2385.941693 74 83 95
276775.824204 5151645.714976 2385.941388 40 44 52
276775.737656 5151645.730112 2385.936597 99 110 120
276775.682725 5151645.682993 2385.943585 78 84 85
276775.791855 5151645.736338 2385.934399 73 79 83
276775.832505 5151645.772104 2385.911298 79 88 97
276775.800400 5151645.757090 2385.913495 97 106 115
276775.713975 5151645.734995 2385.916791 92 98 102
276775.776475 5151645.763315 2385.896100 75 79 84
276775.668198 5151645.705332 2385.901898 70 78 87
276775.831650 5151645.809580 2385.888501 116 129 139
276775.722520 5151645.754404 2385.895490 88 96 105
276775.644639 5151645.710215 2385.882703 59 63 67
276775.785386 5151645.651743 2385.979199 38 45 52
276775.744492 5151645.683115 2385.969403 98 109 118
276775.862534 5151645.780894 2385.917004 125 141 154
276775.721177 5151645.788950 2385.799207 21 25 29
276775.781968 5151645.619272 2385.983105 83 89 98
276775.899155 5151645.694468 2385.952100 91 106 120
276775.842271 5151645.635264 2385.976788 69 80 88
276775.739609 5151645.618784 2385.991193 53 57 63
276775.895615 5151645.656260 2385.968213 31 37 45
276775.946641 5151645.690073 2385.956799 87 105 119
276775.799424 5151645.785776 2385.882611 82 87 90
276775.788315 5151645.682871 2385.974896 107 118 124
276775.751450 5151645.816172 2385.774487 40 46 49
276775.746689 5151645.793833 2385.826611 60 61 62
276775.764756 5151645.790171 2385.863995 132 140 144
276775.814072 5151645.660166 2385.973401 72 82 87
276775.940415 5151645.654063 2385.966107 104 120 131
276775.643662 5151645.735728 2385.853497 122 126 128
276775.647568 5151645.678599 2385.927502 121 131 137
276775.684312 5151645.741709 2385.891095 126 136 143
276775.767197 5151645.806895 2385.807385 35 38 39
276775.763169 5151645.754038 2385.922101 107 113 113
276775.865220 5151645.748179 2385.929211 90 104 116
276775.823472 5151645.743174 2385.929913 99 109 117
276775.728379 5151645.645518 2385.979810 74 82 90
276775.740586 5151645.773325 2385.877301 106 118 125
276775.571763 5151645.672739 2385.895490 117 125 133
276775.523789 5151645.647837 2385.883496 89 99 109
276775.437485 5151645.621470 2385.870404 62 69 73
276775.451646 5151645.476450 2385.997601 72 78 84
276775.638413 5151645.610117 2385.977399 101 115 127
276775.489121 5151645.552744 2385.956799 94 102 108
276775.613389 5151645.654429 2385.941205 140 151 159
276775.589341 5151645.659678 2385.923596 91 100 108
276775.527207 5151645.624766 2385.909711 109 119 125
276775.458604 5151645.604868 2385.891187 93 102 111
276775.489121 5151645.655527 2385.866101 90 103 116
276775.418809 5151645.633066 2385.834210 32 33 35
276775.459824 5151645.506724 2385.981793 96 103 111
276775.427964 5151645.491709 2385.984814 61 68 70
276775.666733 5151645.604868 2385.989789 109 124 138
276775.510972 5151645.588877 2385.925397 97 104 110
276775.427964 5151645.561167 2385.920514 71 81 88
276775.607529 5151645.610361 2385.962903 99 111 122
276775.452134 5151645.528574 2385.957104 56 60 61
276775.576768 5151645.629648 2385.939893 126 139 145
276775.405137 5151645.540781 2385.935803 29 30 30
276775.607896 5151645.711313 2385.855511 77 81 84
276775.559800 5151645.650400 2385.913007 118 127 132
276775.389634 5151645.595591 2385.895093 77 82 81
276775.542222 5151645.540659 2385.983685 75 84 93
276775.502671 5151645.538340 2385.980206 112 122 130
276775.580796 5151645.577402 2385.975415 119 132 142
276775.541611 5151645.611704 2385.935010 117 128 136
276775.463975 5151645.567393 2385.922498 93 100 104
276775.502061 5151645.605723 2385.900311 100 109 118
276775.572251 5151645.695078 2385.867291 104 113 120
276775.489121 5151645.509043 2385.996198 101 110 118
276775.551255 5151645.575693 2385.965894 130 142 152
276775.619736 5151645.571543 2385.987012 121 136 147
276775.618882 5151645.679941 2385.917615 150 166 175
276775.569443 5151645.598643 2385.955487 122 134 143
276775.642563 5151645.648447 2385.964490 102 116 125
276775.395127 5151645.565317 2385.912091 57 60 65
276775.488999 5151645.629160 2385.881604 88 99 109
276775.596665 5151645.549937 2385.994794 115 128 140
276775.541367 5151645.678599 2385.867505 113 126 138
276775.458848 5151645.644541 2385.856213 62 69 75
276775.411240 5151645.524790 2385.965985 42 44 41
276775.615098 5151645.702891 2385.885205 142 148 150
276775.428086 5151645.594004 2385.894299 104 113 118
276775.822861 5151645.436655 2386.093915 87 92 98
276775.896348 5151645.487192 2386.067395 86 95 101
276775.837388 5151645.424326 2386.203412 98 106 113
276775.939805 5151645.490977 2386.171002 84 88 91
276775.889756 5151645.611216 2385.986188 53 61 64
276775.970566 5151645.533213 2386.082196 123 134 141
276775.906235 5151645.470103 2386.183301 94 102 105
276775.814072 5151645.407969 2386.179486 77 81 85
276775.805649 5151645.563486 2385.994489 62 70 78
276775.884995 5151645.459116 2386.153699 84 90 92
276775.955186 5151645.508677 2386.111188 76 81 85
276775.940781 5151645.579722 2385.995404 79 87 94
276775.929673 5151645.483652 2386.114209 82 87 92
276775.881455 5151645.453623 2386.189587 91 98 105
276776.006699 5151645.546152 2386.122601 93 99 101
276775.873887 5151645.455576 2386.117413 86 92 93
276776.007065 5151645.538096 2386.087109 65 66 68
276775.741440 5151645.492930 2386.036694 96 110 118
276775.763169 5151645.568247 2386.002698 29 33 37
276775.933213 5151645.508799 2386.074506 83 89 96
276775.998643 5151645.537241 2386.159802 118 125 129
276775.825913 5151645.492441 2386.030804 73 79 83
276775.801499 5151645.534800 2386.005292 48 53 60
276775.930771 5151645.483042 2386.203900 101 109 110
276775.964219 5151645.611338 2385.991498 87 96 104
276775.807725 5151645.421030 2386.121899 95 103 109
276775.961411 5151645.499888 2386.195508 107 113 121
276775.886094 5151645.458750 2386.082898 70 74 80
276775.970200 5151645.515391 2386.163800 112 119 122
276775.854966 5151645.473398 2386.043500 77 87 93
276775.792100 5151645.398325 2386.144696 100 107 112
276775.807236 5151645.597910 2385.986798 56 63 71
276775.944199 5151645.542002 2386.032513 76 83 87
276775.708604 5151645.610117 2386.001691 110 122 127
276775.858506 5151645.546152 2385.997113 50 59 66
276775.823960 5151645.449961 2386.062787 79 84 89
276775.995469 5151645.557871 2386.052899 75 80 92
276775.838120 5151645.431650 2386.131604 91 98 104
276776.007676 5151645.527964 2386.214490 122 129 135
276775.770493 5151645.538950 2386.012799 50 53 57
276775.913071 5151645.468394 2386.134290 53 54 54
276775.792222 5151645.452280 2386.053815 67 73 79
276775.721543 5151645.549692 2386.019391 97 109 117
276775.917588 5151645.513682 2386.025494 38 44 50
276775.963975 5151645.575938 2386.015912 88 98 105
276775.912339 5151645.551035 2386.004590 64 72 79
276775.981431 5151645.528208 2386.129895 103 106 108
276775.780381 5151645.416147 2386.108807 94 101 108
276775.886460 5151645.571299 2385.996106 65 71 80
276775.774399 5151645.495249 2386.035504 94 102 110
276775.857041 5151645.452524 2386.068585 60 65 67
276775.833237 5151645.530283 2386.002393 32 38 44
276775.854844 5151645.592783 2385.986798 78 88 97
276775.805771 5151645.399058 2386.207013 101 106 109
276775.844956 5151645.432139 2386.167493 68 72 76
276775.786484 5151645.430186 2386.081891 92 97 103
276775.888413 5151645.530649 2386.011914 84 94 102
276775.881089 5151645.499521 2386.034192 63 71 77
276775.928940 5151645.610117 2385.980786 69 77 86
276775.701768 5151645.577158 2386.009686 94 108 119
276775.854966 5151645.509043 2386.015790 37 42 48
276775.734727 5151645.580210 2386.009808 80 90 92
276775.896958 5151645.462656 2386.215985 111 121 128
276775.759629 5151645.468516 2386.046307 102 115 123
276775.519395 5151645.474741 2386.032086 94 100 107
276775.495103 5151645.444834 2386.036603 91 99 107
276775.639023 5151645.291025 2386.209210 83 88 93
276775.692246 5151645.446787 2386.062604 118 128 137
276775.747910 5151645.355112 2386.195813 107 113 118
276775.673936 5151645.315928 2386.184094 78 81 85
276775.717637 5151645.352183 2386.163098 114 124 130
276775.611924 5151645.521006 2386.009503 102 116 128
276775.571885 5151645.520273 2386.008801 113 126 136
276775.741074 5151645.394175 2386.096295 57 61 67
276775.479355 5151645.472544 2386.013806 92 101 109
276775.456406 5151645.440317 2386.018811 62 67 75
276775.639756 5151645.543833 2386.000989 108 122 134
276775.624009 5151645.303965 2386.154187 75 79 83
276775.563584 5151645.295054 2386.144208 75 80 89
276775.711533 5151645.332041 2386.206586 102 106 111
276775.781113 5151645.385996 2386.181805 98 104 108
276775.645005 5151645.444102 2386.064099 109 119 129
276775.751206 5151645.366465 2386.167493 98 105 111
276775.564927 5151645.471689 2386.040997 88 96 104
276775.655625 5151645.319102 2386.151013 71 74 81
276775.546250 5151645.263560 2386.158704 33 34 44
276775.751816 5151645.427500 2386.072797 85 92 99
276775.624497 5151645.339976 2386.129712 71 77 84
276775.589463 5151645.278452 2386.174512 64 66 73
276775.522690 5151645.341318 2386.107495 91 101 111
276775.729966 5151645.381113 2386.124402 88 94 101
276775.666855 5151645.360239 2386.122906 106 114 124
276775.581162 5151645.325693 2386.129315 79 86 94
276775.600449 5151645.416147 2386.078290 76 81 83
276775.507188 5151645.370005 2386.086011 75 83 93
276775.694199 5151645.389902 2386.102612 98 107 115
276775.593491 5151645.350107 2386.116986 56 62 69
276775.638779 5151645.410532 2386.092206 103 112 122
276775.537949 5151645.376963 2386.093213 97 107 116
276775.569932 5151645.428599 2386.067212 83 92 100
276775.538193 5151645.413218 2386.071393 73 80 90
276775.608628 5151645.464854 2386.043408 90 102 113
276775.663193 5151645.509775 2386.020886 100 114 126
276775.663193 5151645.482554 2386.034985 89 98 107
276775.714585 5151645.417490 2386.079388 88 96 105
276775.729966 5151645.458994 2386.051892 98 111 121
276775.616074 5151645.380259 2386.106885 103 110 115
276775.548203 5151645.322886 2386.122113 69 76 85
276775.702012 5151645.520029 2386.026593 89 100 110
276775.508408 5151645.420542 2386.056409 73 80 88
276775.532334 5151645.451182 2386.050885 93 104 114
276775.548081 5151645.496104 2386.026593 94 101 108
276775.608262 5151645.491953 2386.025708 80 93 105
276775.709946 5151645.487314 2386.042615 97 109 119
276775.671128 5151645.423960 2386.083813 114 125 135
276775.624253 5151645.287363 2386.181714 94 97 100
276775.572983 5151645.395518 2386.088300 81 86 90
276775.484849 5151645.379404 2386.065808 54 59 65
276775.665024 5151645.562021 2386.003308 97 111 123
276775.682603 5151645.334482 2386.158002 108 116 123
276775.700425 5151645.364390 2386.134808 105 112 118
276775.529404 5151645.294321 2386.133405 57 63 73
276775.530015 5151645.515879 2385.999585 75 81 87
276775.613755 5151645.272715 2386.208112 70 73 77
276775.473984 5151645.401011 2386.044812 53 57 64
276775.555894 5151645.354136 2386.108289 76 84 93
276775.762070 5151645.388071 2386.137189 85 91 96
276775.786606 5151645.834116 2385.829114 96 104 109
276775.769761 5151645.859019 2385.789685 116 127 133
276775.819199 5151645.856089 2385.849805 126 137 144
276775.811387 5151645.904551 2385.805096 113 122 131
276775.651230 5151645.759165 2385.834485 71 75 79
276775.633774 5151645.781626 2385.805707 137 143 150
276775.796494 5151645.817271 2385.852704 102 110 119
276775.596299 5151645.777598 2385.806104 125 131 136
276775.803452 5151645.876719 2385.824689 117 128 136
276775.848008 5151645.872568 2385.866986 149 165 175
276775.702866 5151645.777109 2385.856610 123 130 133
276775.616196 5151645.740366 2385.829114 57 63 71
276775.682847 5151645.790781 2385.810712 125 136 143
276775.689072 5151645.811289 2385.777386 97 106 111
276775.831406 5151645.890757 2385.841412 134 142 146
276775.849717 5151645.842417 2385.885785 121 136 150
276775.784287 5151645.882578 2385.801892 117 127 136
276775.648789 5151645.804697 2385.790112 115 123 130
276775.557236 5151645.765269 2385.805493 102 111 117
276775.362290 5151645.644907 2385.801709 85 89 91
276775.483506 5151645.700327 2385.819806 100 106 111
276775.447373 5151645.669688 2385.803204 61 68 74
276775.523179 5151645.718882 2385.831311 121 136 146
276775.399766 5151645.650400 2385.810101 36 37 31
276775.383164 5151645.629526 2385.860913 84 85 83
276775.496812 5151645.685923 2385.848096 99 110 117
276775.361313 5151645.630747 2385.839307 94 96 95
276775.519639 5151645.742197 2385.805096 113 122 126
276775.582871 5151645.729746 2385.838513 133 146 155
276775.465562 5151645.676768 2385.828809 89 95 100
276775.548691 5151645.736094 2385.828687 135 148 157
276775.474961 5151645.713755 2385.785687 99 107 114
276775.316514 5151645.514292 2385.969098 37 39 41
276775.282578 5151645.506968 2385.992291 22 25 28
276775.352524 5151645.486826 2385.992413 77 83 91
276775.392808 5151645.493662 2385.992291 72 78 84
276775.262070 5151645.475718 2386.023602 90 91 87
276775.348374 5151645.528452 2385.961285 72 77 85
276775.303086 5151645.458018 2385.996899 25 28 33
276775.335557 5151645.451914 2386.003796 32 36 42
276775.360337 5151645.552500 2385.932599 31 32 32
276775.323838 5151645.482554 2385.984509 30 33 38
276775.407334 5151645.467417 2385.998792 24 28 32
276775.319565 5151645.542124 2385.949109 67 70 65
276775.369858 5151645.464121 2386.004987 31 36 40
276775.429795 5151645.286265 2386.153088 69 70 73
276775.398545 5151645.310313 2386.147809 58 59 67
276775.474961 5151645.325571 2386.094586 66 71 77
276775.381455 5151645.361704 2386.026807 24 29 33
276775.315781 5151645.337900 2386.205212 46 46 56
276775.281602 5151645.420908 2386.131696 76 78 78
276775.384873 5151645.329233 2386.112897 65 65 66
276775.291733 5151645.427134 2386.024609 35 36 39
276775.301377 5151645.366221 2386.182111 37 37 39
276775.447251 5151645.289561 2386.117810 40 42 44
276775.426011 5151645.274790 2386.208203 47 44 44
276775.512681 5151645.257212 2386.194714 69 75 75
276775.472764 5151645.258799 2386.193585 75 79 79
276775.378403 5151645.325571 2386.181104 97 98 96
276775.431992 5151645.317515 2386.095013 26 28 31
276775.481797 5151645.271860 2386.138196 77 78 80
276775.324692 5151645.409922 2386.023389 29 31 35
276775.281602 5151645.393564 2386.176007 85 91 84
276775.291611 5151645.383799 2386.094006 21 21 21
276775.327744 5151645.348154 2386.087292 79 81 82
276775.365220 5151645.415049 2386.024091 27 31 35
276775.423447 5151645.364146 2386.050793 56 60 65
276775.391709 5151645.347300 2386.051312 28 31 33
276775.403550 5151645.297861 2386.203503 70 68 65
276775.291611 5151645.312144 2386.251294 40 40 41
276775.259141 5151645.335703 2386.248486 34 34 25
276775.226426 5151645.393564 2386.219403 48 48 39
276775.267563 5151645.457285 2386.120190 117 119 117
276775.500596 5151645.264780 2386.161908 54 56 57
276775.439072 5151645.408945 2386.028790 70 75 82
276775.348252 5151645.346689 2386.167706 68 69 69
276775.324204 5151645.376719 2386.130688 83 84 86
276775.465317 5151645.267344 2386.164990 76 77 79
276775.292954 5151645.390391 2386.126904 28 29 31
276775.452256 5151645.374888 2386.049115 47 52 58
276775.383042 5151645.321665 2386.240094 93 96 91
276775.548569 5151645.238779 2386.207806 24 26 28
276775.264023 5151645.419321 2386.171094 88 91 100
276775.360459 5151645.342295 2386.133313 65 64 61
276775.247666 5151645.371714 2386.201703 25 25 32
